ply
format ascii 1.0
element vertex 1404
property float x
property float y
property float z
property uchar red
property uchar green
property uchar blue
end_header
-5.4640 -0.0052 -45.5386 0 255 255
-6.6640 -0.0552 -45.5386 80 80 80
-6.0640 -0.0552 -45.5386 80 80 80
-5.4640 -0.0552 -45.5386 80 80 80
-4.8640 -0.0552 -45.5386 80 80 80
-4.2640 -0.0552 -45.5386 80 80 80
-5.5023 -0.0078 -45.7349 0 255 255
-6.7023 -0.0578 -45.7349 80 80 80
-6.1023 -0.0578 -45.7349 80 80 80
-5.5023 -0.0578 -45.7349 80 80 80
-4.9023 -0.0578 -45.7349 80 80 80
-4.3023 -0.0578 -45.7349 80 80 80
-5.5376 -0.0145 -45.9317 0 255 255
-6.7376 -0.0645 -45.9317 80 80 80
-6.1376 -0.0645 -45.9317 80 80 80
-5.5376 -0.0645 -45.9317 80 80 80
-4.9376 -0.0645 -45.9317 80 80 80
-4.3376 -0.0645 -45.9317 80 80 80
-5.5703 -0.0085 -46.1289 0 255 255
-6.7703 -0.0585 -46.1289 80 80 80
-6.1703 -0.0585 -46.1289 80 80 80
-5.5703 -0.0585 -46.1289 80 80 80
-4.9703 -0.0585 -46.1289 80 80 80
-4.3703 -0.0585 -46.1289 80 80 80
-5.6061 -0.0162 -46.3255 0 255 255
-6.8061 -0.0662 -46.3255 80 80 80
-6.2061 -0.0662 -46.3255 80 80 80
-5.6061 -0.0662 -46.3255 80 80 80
-5.0061 -0.0662 -46.3255 80 80 80
-4.4061 -0.0662 -46.3255 80 80 80
-5.6485 -0.0147 -46.5210 0 255 255
-6.8485 -0.0647 -46.5210 80 80 80
-6.2485 -0.0647 -46.5210 80 80 80
-5.6485 -0.0647 -46.5210 80 80 80
-5.0485 -0.0647 -46.5210 80 80 80
-4.4485 -0.0647 -46.5210 80 80 80
-5.6873 -0.0215 -46.7170 0 255 255
-6.8873 -0.0715 -46.7170 80 80 80
-6.2873 -0.0715 -46.7170 80 80 80
-5.6873 -0.0715 -46.7170 80 80 80
-5.0873 -0.0715 -46.7170 80 80 80
-4.4873 -0.0715 -46.7170 80 80 80
-5.7377 -0.0226 -46.9106 0 255 255
-6.9377 -0.0726 -46.9106 80 80 80
-6.3377 -0.0726 -46.9106 80 80 80
-5.7377 -0.0726 -46.9106 80 80 80
-5.1377 -0.0726 -46.9106 80 80 80
-4.5377 -0.0726 -46.9106 80 80 80
-5.7714 -0.0198 -47.1077 0 255 255
-6.9714 -0.0698 -47.1077 80 80 80
-6.3714 -0.0698 -47.1077 80 80 80
-5.7714 -0.0698 -47.1077 80 80 80
-5.1714 -0.0698 -47.1077 80 80 80
-4.5714 -0.0698 -47.1077 80 80 80
-5.8059 -0.0192 -47.3047 0 255 255
-7.0059 -0.0692 -47.3047 80 80 80
-6.4059 -0.0692 -47.3047 80 80 80
-5.8059 -0.0692 -47.3047 80 80 80
-5.2059 -0.0692 -47.3047 80 80 80
-4.6059 -0.0692 -47.3047 80 80 80
-5.8325 -0.0211 -47.5029 0 255 255
-7.0325 -0.0711 -47.5029 80 80 80
-6.4325 -0.0711 -47.5029 80 80 80
-5.8325 -0.0711 -47.5029 80 80 80
-5.2325 -0.0711 -47.5029 80 80 80
-4.6325 -0.0711 -47.5029 80 80 80
-5.8643 -0.0317 -47.7001 0 255 255
-7.0643 -0.0817 -47.7001 80 80 80
-6.4643 -0.0817 -47.7001 80 80 80
-5.8643 -0.0817 -47.7001 80 80 80
-5.2643 -0.0817 -47.7001 80 80 80
-4.6643 -0.0817 -47.7001 80 80 80
-5.8990 -0.0380 -47.8970 0 255 255
-7.0990 -0.0880 -47.8970 80 80 80
-6.4990 -0.0880 -47.8970 80 80 80
-5.8990 -0.0880 -47.8970 80 80 80
-5.2990 -0.0880 -47.8970 80 80 80
-4.6990 -0.0880 -47.8970 80 80 80
-5.9338 -0.0480 -48.0936 0 255 255
-7.1338 -0.0980 -48.0936 80 80 80
-6.5338 -0.0980 -48.0936 80 80 80
-5.9338 -0.0980 -48.0936 80 80 80
-5.3338 -0.0980 -48.0936 80 80 80
-4.7338 -0.0980 -48.0936 80 80 80
-5.9687 -0.0545 -48.2905 0 255 255
-7.1687 -0.1045 -48.2905 80 80 80
-6.5687 -0.1045 -48.2905 80 80 80
-5.9687 -0.1045 -48.2905 80 80 80
-5.3687 -0.1045 -48.2905 80 80 80
-4.7687 -0.1045 -48.2905 80 80 80
-5.9913 -0.0621 -48.4890 0 255 255
-7.1913 -0.1121 -48.4890 80 80 80
-6.5913 -0.1121 -48.4890 80 80 80
-5.9913 -0.1121 -48.4890 80 80 80
-5.3913 -0.1121 -48.4890 80 80 80
-4.7913 -0.1121 -48.4890 80 80 80
-6.0202 -0.0517 -48.6867 0 255 255
-7.2202 -0.1017 -48.6867 80 80 80
-6.6202 -0.1017 -48.6867 80 80 80
-6.0202 -0.1017 -48.6867 80 80 80
-5.4202 -0.1017 -48.6867 80 80 80
-4.8202 -0.1017 -48.6867 80 80 80
-6.0488 -0.0616 -48.8844 0 255 255
-7.2488 -0.1116 -48.8844 80 80 80
-6.6488 -0.1116 -48.8844 80 80 80
-6.0488 -0.1116 -48.8844 80 80 80
-5.4488 -0.1116 -48.8844 80 80 80
-4.8488 -0.1116 -48.8844 80 80 80
-6.0821 -0.0738 -49.0812 0 255 255
-7.2821 -0.1238 -49.0812 80 80 80
-6.6821 -0.1238 -49.0812 80 80 80
-6.0821 -0.1238 -49.0812 80 80 80
-5.4821 -0.1238 -49.0812 80 80 80
-4.8821 -0.1238 -49.0812 80 80 80
-6.1112 -0.0860 -49.2787 0 255 255
-7.3112 -0.1360 -49.2787 80 80 80
-6.7112 -0.1360 -49.2787 80 80 80
-6.1112 -0.1360 -49.2787 80 80 80
-5.5112 -0.1360 -49.2787 80 80 80
-4.9112 -0.1360 -49.2787 80 80 80
-6.1416 -0.0967 -49.4761 0 255 255
-7.3416 -0.1467 -49.4761 80 80 80
-6.7416 -0.1467 -49.4761 80 80 80
-6.1416 -0.1467 -49.4761 80 80 80
-5.5416 -0.1467 -49.4761 80 80 80
-4.9416 -0.1467 -49.4761 80 80 80
-6.1645 -0.1056 -49.6746 0 255 255
-7.3645 -0.1556 -49.6746 80 80 80
-6.7645 -0.1556 -49.6746 80 80 80
-6.1645 -0.1556 -49.6746 80 80 80
-5.5645 -0.1556 -49.6746 80 80 80
-4.9645 -0.1556 -49.6746 80 80 80
-6.1983 -0.1072 -49.8717 0 255 255
-7.3983 -0.1572 -49.8717 80 80 80
-6.7983 -0.1572 -49.8717 80 80 80
-6.1983 -0.1572 -49.8717 80 80 80
-5.5983 -0.1572 -49.8717 80 80 80
-4.9983 -0.1572 -49.8717 80 80 80
-6.2259 -0.1248 -50.0690 0 255 255
-7.4259 -0.1748 -50.0690 80 80 80
-6.8259 -0.1748 -50.0690 80 80 80
-6.2259 -0.1748 -50.0690 80 80 80
-5.6259 -0.1748 -50.0690 80 80 80
-5.0259 -0.1748 -50.0690 80 80 80
-6.2539 -0.1376 -50.2666 0 255 255
-7.4539 -0.1876 -50.2666 80 80 80
-6.8539 -0.1876 -50.2666 80 80 80
-6.2539 -0.1876 -50.2666 80 80 80
-5.6539 -0.1876 -50.2666 80 80 80
-5.0539 -0.1876 -50.2666 80 80 80
-6.2792 -0.1480 -50.4647 0 255 255
-7.4792 -0.1980 -50.4647 80 80 80
-6.8792 -0.1980 -50.4647 80 80 80
-6.2792 -0.1980 -50.4647 80 80 80
-5.6792 -0.1980 -50.4647 80 80 80
-5.0792 -0.1980 -50.4647 80 80 80
-6.3031 -0.1643 -50.6626 0 255 255
-7.5031 -0.2143 -50.6626 80 80 80
-6.9031 -0.2143 -50.6626 80 80 80
-6.3031 -0.2143 -50.6626 80 80 80
-5.7031 -0.2143 -50.6626 80 80 80
-5.1031 -0.2143 -50.6626 80 80 80
-6.3303 -0.1717 -50.8606 0 255 255
-7.5303 -0.2217 -50.8606 80 80 80
-6.9303 -0.2217 -50.8606 80 80 80
-6.3303 -0.2217 -50.8606 80 80 80
-5.7303 -0.2217 -50.8606 80 80 80
-5.1303 -0.2217 -50.8606 80 80 80
-6.3606 -0.1841 -51.0579 0 255 255
-7.5606 -0.2341 -51.0579 80 80 80
-6.9606 -0.2341 -51.0579 80 80 80
-6.3606 -0.2341 -51.0579 80 80 80
-5.7606 -0.2341 -51.0579 80 80 80
-5.1606 -0.2341 -51.0579 80 80 80
-6.3912 -0.2009 -51.2549 0 255 255
-7.5912 -0.2509 -51.2549 80 80 80
-6.9912 -0.2509 -51.2549 80 80 80
-6.3912 -0.2509 -51.2549 80 80 80
-5.7912 -0.2509 -51.2549 80 80 80
-5.1912 -0.2509 -51.2549 80 80 80
-6.4218 -0.2182 -51.4517 0 255 255
-7.6218 -0.2682 -51.4517 80 80 80
-7.0218 -0.2682 -51.4517 80 80 80
-6.4218 -0.2682 -51.4517 80 80 80
-5.8218 -0.2682 -51.4517 80 80 80
-5.2218 -0.2682 -51.4517 80 80 80
-6.4514 -0.2378 -51.6486 0 255 255
-7.6514 -0.2878 -51.6486 80 80 80
-7.0514 -0.2878 -51.6486 80 80 80
-6.4514 -0.2878 -51.6486 80 80 80
-5.8514 -0.2878 -51.6486 80 80 80
-5.2514 -0.2878 -51.6486 80 80 80
-6.4802 -0.2502 -51.8461 0 255 255
-7.6802 -0.3002 -51.8461 80 80 80
-7.0802 -0.3002 -51.8461 80 80 80
-6.4802 -0.3002 -51.8461 80 80 80
-5.8802 -0.3002 -51.8461 80 80 80
-5.2802 -0.3002 -51.8461 80 80 80
-6.5107 -0.2640 -52.0433 0 255 255
-7.7107 -0.3140 -52.0433 80 80 80
-7.1107 -0.3140 -52.0433 80 80 80
-6.5107 -0.3140 -52.0433 80 80 80
-5.9107 -0.3140 -52.0433 80 80 80
-5.3107 -0.3140 -52.0433 80 80 80
-6.5414 -0.2762 -52.2405 0 255 255
-7.7414 -0.3262 -52.2405 80 80 80
-7.1414 -0.3262 -52.2405 80 80 80
-6.5414 -0.3262 -52.2405 80 80 80
-5.9414 -0.3262 -52.2405 80 80 80
-5.3414 -0.3262 -52.2405 80 80 80
-6.5613 -0.3014 -52.4379 0 255 255
-7.7613 -0.3514 -52.4379 80 80 80
-7.1613 -0.3514 -52.4379 80 80 80
-6.5613 -0.3514 -52.4379 80 80 80
-5.9613 -0.3514 -52.4379 80 80 80
-5.3613 -0.3514 -52.4379 80 80 80
-6.5909 -0.3149 -52.6353 0 255 255
-7.7909 -0.3649 -52.6353 80 80 80
-7.1909 -0.3649 -52.6353 80 80 80
-6.5909 -0.3649 -52.6353 80 80 80
-5.9909 -0.3649 -52.6353 80 80 80
-5.3909 -0.3649 -52.6353 80 80 80
-6.6150 -0.3270 -52.8334 0 255 255
-7.8150 -0.3770 -52.8334 80 80 80
-7.2150 -0.3770 -52.8334 80 80 80
-6.6150 -0.3770 -52.8334 80 80 80
-6.0150 -0.3770 -52.8334 80 80 80
-5.4150 -0.3770 -52.8334 80 80 80
-6.6347 -0.3430 -53.0318 0 255 255
-7.8347 -0.3930 -53.0318 80 80 80
-7.2347 -0.3930 -53.0318 80 80 80
-6.6347 -0.3930 -53.0318 80 80 80
-6.0347 -0.3930 -53.0318 80 80 80
-5.4347 -0.3930 -53.0318 80 80 80
-6.6611 -0.3513 -53.2299 0 255 255
-7.8611 -0.4013 -53.2299 80 80 80
-7.2611 -0.4013 -53.2299 80 80 80
-6.6611 -0.4013 -53.2299 80 80 80
-6.0611 -0.4013 -53.2299 80 80 80
-5.4611 -0.4013 -53.2299 80 80 80
-6.6863 -0.3701 -53.4274 0 255 255
-7.8863 -0.4201 -53.4274 80 80 80
-7.2863 -0.4201 -53.4274 80 80 80
-6.6863 -0.4201 -53.4274 80 80 80
-6.0863 -0.4201 -53.4274 80 80 80
-5.4863 -0.4201 -53.4274 80 80 80
-6.7204 -0.3808 -53.6242 0 255 255
-7.9204 -0.4308 -53.6242 80 80 80
-7.3204 -0.4308 -53.6242 80 80 80
-6.7204 -0.4308 -53.6242 80 80 80
-6.1204 -0.4308 -53.6242 80 80 80
-5.5204 -0.4308 -53.6242 80 80 80
-6.7465 -0.3988 -53.8216 0 255 255
-7.9465 -0.4488 -53.8216 80 80 80
-7.3465 -0.4488 -53.8216 80 80 80
-6.7465 -0.4488 -53.8216 80 80 80
-6.1465 -0.4488 -53.8216 80 80 80
-5.5465 -0.4488 -53.8216 80 80 80
-6.7821 -0.4110 -54.0181 0 255 255
-7.9821 -0.4610 -54.0181 80 80 80
-7.3821 -0.4610 -54.0181 80 80 80
-6.7821 -0.4610 -54.0181 80 80 80
-6.1821 -0.4610 -54.0181 80 80 80
-5.5821 -0.4610 -54.0181 80 80 80
-6.8146 -0.4239 -54.2150 0 255 255
-8.0146 -0.4739 -54.2150 80 80 80
-7.4146 -0.4739 -54.2150 80 80 80
-6.8146 -0.4739 -54.2150 80 80 80
-6.2146 -0.4739 -54.2150 80 80 80
-5.6146 -0.4739 -54.2150 80 80 80
-6.8476 -0.4390 -54.4117 0 255 255
-8.0476 -0.4890 -54.4117 80 80 80
-7.4476 -0.4890 -54.4117 80 80 80
-6.8476 -0.4890 -54.4117 80 80 80
-6.2476 -0.4890 -54.4117 80 80 80
-5.6476 -0.4890 -54.4117 80 80 80
-6.8805 -0.4470 -54.6088 0 255 255
-8.0805 -0.4970 -54.6088 80 80 80
-7.4805 -0.4970 -54.6088 80 80 80
-6.8805 -0.4970 -54.6088 80 80 80
-6.2805 -0.4970 -54.6088 80 80 80
-5.6805 -0.4970 -54.6088 80 80 80
-6.9222 -0.4616 -54.8039 0 255 255
-8.1222 -0.5116 -54.8039 80 80 80
-7.5222 -0.5116 -54.8039 80 80 80
-6.9222 -0.5116 -54.8039 80 80 80
-6.3222 -0.5116 -54.8039 80 80 80
-5.7222 -0.5116 -54.8039 80 80 80
-6.9502 -0.4774 -55.0013 0 255 255
-8.1502 -0.5274 -55.0013 80 80 80
-7.5502 -0.5274 -55.0013 80 80 80
-6.9502 -0.5274 -55.0013 80 80 80
-6.3502 -0.5274 -55.0013 80 80 80
-5.7502 -0.5274 -55.0013 80 80 80
-6.9820 -0.4887 -55.1984 0 255 255
-8.1820 -0.5387 -55.1984 80 80 80
-7.5820 -0.5387 -55.1984 80 80 80
-6.9820 -0.5387 -55.1984 80 80 80
-6.3820 -0.5387 -55.1984 80 80 80
-5.7820 -0.5387 -55.1984 80 80 80
-7.0036 -0.5044 -55.3966 0 255 255
-8.2036 -0.5544 -55.3966 80 80 80
-7.6036 -0.5544 -55.3966 80 80 80
-7.0036 -0.5544 -55.3966 80 80 80
-6.4036 -0.5544 -55.3966 80 80 80
-5.8036 -0.5544 -55.3966 80 80 80
-7.0401 -0.5169 -55.5929 0 255 255
-8.2401 -0.5669 -55.5929 80 80 80
-7.6401 -0.5669 -55.5929 80 80 80
-7.0401 -0.5669 -55.5929 80 80 80
-6.4401 -0.5669 -55.5929 80 80 80
-5.8401 -0.5669 -55.5929 80 80 80
-7.0643 -0.5228 -55.7913 0 255 255
-8.2643 -0.5728 -55.7913 80 80 80
-7.6643 -0.5728 -55.7913 80 80 80
-7.0643 -0.5728 -55.7913 80 80 80
-6.4643 -0.5728 -55.7913 80 80 80
-5.8643 -0.5728 -55.7913 80 80 80
-7.0978 -0.5346 -55.9881 0 255 255
-8.2978 -0.5846 -55.9881 80 80 80
-7.6978 -0.5846 -55.9881 80 80 80
-7.0978 -0.5846 -55.9881 80 80 80
-6.4978 -0.5846 -55.9881 80 80 80
-5.8978 -0.5846 -55.9881 80 80 80
-7.1407 -0.5430 -56.1833 0 255 255
-8.3407 -0.5930 -56.1833 80 80 80
-7.7407 -0.5930 -56.1833 80 80 80
-7.1407 -0.5930 -56.1833 80 80 80
-6.5407 -0.5930 -56.1833 80 80 80
-5.9407 -0.5930 -56.1833 80 80 80
-7.1755 -0.5608 -56.3794 0 255 255
-8.3755 -0.6108 -56.3794 80 80 80
-7.7755 -0.6108 -56.3794 80 80 80
-7.1755 -0.6108 -56.3794 80 80 80
-6.5755 -0.6108 -56.3794 80 80 80
-5.9755 -0.6108 -56.3794 80 80 80
-7.2161 -0.5677 -56.5751 0 255 255
-8.4161 -0.6177 -56.5751 80 80 80
-7.8161 -0.6177 -56.5751 80 80 80
-7.2161 -0.6177 -56.5751 80 80 80
-6.6161 -0.6177 -56.5751 80 80 80
-6.0161 -0.6177 -56.5751 80 80 80
-7.2500 -0.5840 -56.7716 0 255 255
-8.4500 -0.6340 -56.7716 80 80 80
-7.8500 -0.6340 -56.7716 80 80 80
-7.2500 -0.6340 -56.7716 80 80 80
-6.6500 -0.6340 -56.7716 80 80 80
-6.0500 -0.6340 -56.7716 80 80 80
-7.2854 -0.5963 -56.9680 0 255 255
-8.4854 -0.6463 -56.9680 80 80 80
-7.8854 -0.6463 -56.9680 80 80 80
-7.2854 -0.6463 -56.9680 80 80 80
-6.6854 -0.6463 -56.9680 80 80 80
-6.0854 -0.6463 -56.9680 80 80 80
-7.3312 -0.6053 -57.1625 0 255 255
-8.5312 -0.6553 -57.1625 80 80 80
-7.9312 -0.6553 -57.1625 80 80 80
-7.3312 -0.6553 -57.1625 80 80 80
-6.7312 -0.6553 -57.1625 80 80 80
-6.1312 -0.6553 -57.1625 80 80 80
-7.3618 -0.6103 -57.3601 0 255 255
-8.5618 -0.6603 -57.3601 80 80 80
-7.9618 -0.6603 -57.3601 80 80 80
-7.3618 -0.6603 -57.3601 80 80 80
-6.7618 -0.6603 -57.3601 80 80 80
-6.1618 -0.6603 -57.3601 80 80 80
-7.3982 -0.6139 -57.5567 0 255 255
-8.5982 -0.6639 -57.5567 80 80 80
-7.9982 -0.6639 -57.5567 80 80 80
-7.3982 -0.6639 -57.5567 80 80 80
-6.7982 -0.6639 -57.5567 80 80 80
-6.1982 -0.6639 -57.5567 80 80 80
-7.4367 -0.6126 -57.7530 0 255 255
-8.6367 -0.6626 -57.7530 80 80 80
-8.0367 -0.6626 -57.7530 80 80 80
-7.4367 -0.6626 -57.7530 80 80 80
-6.8367 -0.6626 -57.7530 80 80 80
-6.2367 -0.6626 -57.7530 80 80 80
-7.4745 -0.6186 -57.9493 0 255 255
-8.6745 -0.6686 -57.9493 80 80 80
-8.0745 -0.6686 -57.9493 80 80 80
-7.4745 -0.6686 -57.9493 80 80 80
-6.8745 -0.6686 -57.9493 80 80 80
-6.2745 -0.6686 -57.9493 80 80 80
-7.5136 -0.6247 -58.1453 0 255 255
-8.7136 -0.6747 -58.1453 80 80 80
-8.1136 -0.6747 -58.1453 80 80 80
-7.5136 -0.6747 -58.1453 80 80 80
-6.9136 -0.6747 -58.1453 80 80 80
-6.3136 -0.6747 -58.1453 80 80 80
-7.5457 -0.6269 -58.3427 0 255 255
-8.7457 -0.6769 -58.3427 80 80 80
-8.1457 -0.6769 -58.3427 80 80 80
-7.5457 -0.6769 -58.3427 80 80 80
-6.9457 -0.6769 -58.3427 80 80 80
-6.3457 -0.6769 -58.3427 80 80 80
-7.5831 -0.6351 -58.5390 0 255 255
-8.7831 -0.6851 -58.5390 80 80 80
-8.1831 -0.6851 -58.5390 80 80 80
-7.5831 -0.6851 -58.5390 80 80 80
-6.9831 -0.6851 -58.5390 80 80 80
-6.3831 -0.6851 -58.5390 80 80 80
-7.6338 -0.6374 -58.7325 0 255 255
-8.8338 -0.6874 -58.7325 80 80 80
-8.2338 -0.6874 -58.7325 80 80 80
-7.6338 -0.6874 -58.7325 80 80 80
-7.0338 -0.6874 -58.7325 80 80 80
-6.4338 -0.6874 -58.7325 80 80 80
-7.6712 -0.6395 -58.9289 0 255 255
-8.8712 -0.6895 -58.9289 80 80 80
-8.2712 -0.6895 -58.9289 80 80 80
-7.6712 -0.6895 -58.9289 80 80 80
-7.0712 -0.6895 -58.9289 80 80 80
-6.4712 -0.6895 -58.9289 80 80 80
-7.7070 -0.6464 -59.1256 0 255 255
-8.9070 -0.6964 -59.1256 80 80 80
-8.3070 -0.6964 -59.1256 80 80 80
-7.7070 -0.6964 -59.1256 80 80 80
-7.1070 -0.6964 -59.1256 80 80 80
-6.5070 -0.6964 -59.1256 80 80 80
-7.7434 -0.6588 -59.3218 0 255 255
-8.9434 -0.7088 -59.3218 80 80 80
-8.3434 -0.7088 -59.3218 80 80 80
-7.7434 -0.7088 -59.3218 80 80 80
-7.1434 -0.7088 -59.3218 80 80 80
-6.5434 -0.7088 -59.3218 80 80 80
-7.7810 -0.6636 -59.5182 0 255 255
-8.9810 -0.7136 -59.5182 80 80 80
-8.3810 -0.7136 -59.5182 80 80 80
-7.7810 -0.7136 -59.5182 80 80 80
-7.1810 -0.7136 -59.5182 80 80 80
-6.5810 -0.7136 -59.5182 80 80 80
-7.8165 -0.6774 -59.7146 0 255 255
-9.0165 -0.7274 -59.7146 80 80 80
-8.4165 -0.7274 -59.7146 80 80 80
-7.8165 -0.7274 -59.7146 80 80 80
-7.2165 -0.7274 -59.7146 80 80 80
-6.6165 -0.7274 -59.7146 80 80 80
-7.8568 -0.6800 -59.9104 0 255 255
-9.0568 -0.7300 -59.9104 80 80 80
-8.4568 -0.7300 -59.9104 80 80 80
-7.8568 -0.7300 -59.9104 80 80 80
-7.2568 -0.7300 -59.9104 80 80 80
-6.6568 -0.7300 -59.9104 80 80 80
-7.9006 -0.6986 -60.1047 0 255 255
-9.1006 -0.7486 -60.1047 80 80 80
-8.5006 -0.7486 -60.1047 80 80 80
-7.9006 -0.7486 -60.1047 80 80 80
-7.3006 -0.7486 -60.1047 80 80 80
-6.7006 -0.7486 -60.1047 80 80 80
-7.9417 -0.7175 -60.2995 0 255 255
-9.1417 -0.7675 -60.2995 80 80 80
-8.5417 -0.7675 -60.2995 80 80 80
-7.9417 -0.7675 -60.2995 80 80 80
-7.3417 -0.7675 -60.2995 80 80 80
-6.7417 -0.7675 -60.2995 80 80 80
-7.9824 -0.7345 -60.4946 0 255 255
-9.1824 -0.7845 -60.4946 80 80 80
-8.5824 -0.7845 -60.4946 80 80 80
-7.9824 -0.7845 -60.4946 80 80 80
-7.3824 -0.7845 -60.4946 80 80 80
-6.7824 -0.7845 -60.4946 80 80 80
-8.0242 -0.7553 -60.6890 0 255 255
-9.2242 -0.8053 -60.6890 80 80 80
-8.6242 -0.8053 -60.6890 80 80 80
-8.0242 -0.8053 -60.6890 80 80 80
-7.4242 -0.8053 -60.6890 80 80 80
-6.8242 -0.8053 -60.6890 80 80 80
-8.0646 -0.7733 -60.8841 0 255 255
-9.2646 -0.8233 -60.8841 80 80 80
-8.6646 -0.8233 -60.8841 80 80 80
-8.0646 -0.8233 -60.8841 80 80 80
-7.4646 -0.8233 -60.8841 80 80 80
-6.8646 -0.8233 -60.8841 80 80 80
-8.0906 -0.7954 -61.0812 0 255 255
-9.2906 -0.8454 -61.0812 80 80 80
-8.6906 -0.8454 -61.0812 80 80 80
-8.0906 -0.8454 -61.0812 80 80 80
-7.4906 -0.8454 -61.0812 80 80 80
-6.8906 -0.8454 -61.0812 80 80 80
-8.1287 -0.8143 -61.2766 0 255 255
-9.3287 -0.8643 -61.2766 80 80 80
-8.7287 -0.8643 -61.2766 80 80 80
-8.1287 -0.8643 -61.2766 80 80 80
-7.5287 -0.8643 -61.2766 80 80 80
-6.9287 -0.8643 -61.2766 80 80 80
-8.1634 -0.8413 -61.4717 0 255 255
-9.3634 -0.8913 -61.4717 80 80 80
-8.7634 -0.8913 -61.4717 80 80 80
-8.1634 -0.8913 -61.4717 80 80 80
-7.5634 -0.8913 -61.4717 80 80 80
-6.9634 -0.8913 -61.4717 80 80 80
-8.2179 -0.8531 -61.6638 0 255 255
-9.4179 -0.9031 -61.6638 80 80 80
-8.8179 -0.9031 -61.6638 80 80 80
-8.2179 -0.9031 -61.6638 80 80 80
-7.6179 -0.9031 -61.6638 80 80 80
-7.0179 -0.9031 -61.6638 80 80 80
-8.2604 -0.8727 -61.8582 0 255 255
-9.4604 -0.9227 -61.8582 80 80 80
-8.8604 -0.9227 -61.8582 80 80 80
-8.2604 -0.9227 -61.8582 80 80 80
-7.6604 -0.9227 -61.8582 80 80 80
-7.0604 -0.9227 -61.8582 80 80 80
-8.2858 -0.8979 -62.0550 0 255 255
-9.4858 -0.9479 -62.0550 80 80 80
-8.8858 -0.9479 -62.0550 80 80 80
-8.2858 -0.9479 -62.0550 80 80 80
-7.6858 -0.9479 -62.0550 80 80 80
-7.0858 -0.9479 -62.0550 80 80 80
-8.3129 -0.9149 -62.2524 0 255 255
-9.5129 -0.9649 -62.2524 80 80 80
-8.9129 -0.9649 -62.2524 80 80 80
-8.3129 -0.9649 -62.2524 80 80 80
-7.7129 -0.9649 -62.2524 80 80 80
-7.1129 -0.9649 -62.2524 80 80 80
-8.3465 -0.9370 -62.4483 0 255 255
-9.5465 -0.9870 -62.4483 80 80 80
-8.9465 -0.9870 -62.4483 80 80 80
-8.3465 -0.9870 -62.4483 80 80 80
-7.7465 -0.9870 -62.4483 80 80 80
-7.1465 -0.9870 -62.4483 80 80 80
-8.3825 -0.9590 -62.6439 0 255 255
-9.5825 -1.0090 -62.6439 80 80 80
-8.9825 -1.0090 -62.6439 80 80 80
-8.3825 -1.0090 -62.6439 80 80 80
-7.7825 -1.0090 -62.6439 80 80 80
-7.1825 -1.0090 -62.6439 80 80 80
-8.4357 -0.9864 -62.8347 0 255 255
-9.6357 -1.0364 -62.8347 80 80 80
-9.0357 -1.0364 -62.8347 80 80 80
-8.4357 -1.0364 -62.8347 80 80 80
-7.8357 -1.0364 -62.8347 80 80 80
-7.2357 -1.0364 -62.8347 80 80 80
-8.4782 -1.0125 -63.0284 0 255 255
-9.6782 -1.0625 -63.0284 80 80 80
-9.0782 -1.0625 -63.0284 80 80 80
-8.4782 -1.0625 -63.0284 80 80 80
-7.8782 -1.0625 -63.0284 80 80 80
-7.2782 -1.0625 -63.0284 80 80 80
-8.5090 -1.0414 -63.2239 0 255 255
-9.7090 -1.0914 -63.2239 80 80 80
-9.1090 -1.0914 -63.2239 80 80 80
-8.5090 -1.0914 -63.2239 80 80 80
-7.9090 -1.0914 -63.2239 80 80 80
-7.3090 -1.0914 -63.2239 80 80 80
-8.5613 -1.0703 -63.4147 0 255 255
-9.7613 -1.1203 -63.4147 80 80 80
-9.1613 -1.1203 -63.4147 80 80 80
-8.5613 -1.1203 -63.4147 80 80 80
-7.9613 -1.1203 -63.4147 80 80 80
-7.3613 -1.1203 -63.4147 80 80 80
-8.5898 -1.1047 -63.6096 0 255 255
-9.7898 -1.1547 -63.6096 80 80 80
-9.1898 -1.1547 -63.6096 80 80 80
-8.5898 -1.1547 -63.6096 80 80 80
-7.9898 -1.1547 -63.6096 80 80 80
-7.3898 -1.1547 -63.6096 80 80 80
-8.6200 -1.1332 -63.8053 0 255 255
-9.8200 -1.1832 -63.8053 80 80 80
-9.2200 -1.1832 -63.8053 80 80 80
-8.6200 -1.1832 -63.8053 80 80 80
-8.0200 -1.1832 -63.8053 80 80 80
-7.4200 -1.1832 -63.8053 80 80 80
-8.6428 -1.1653 -64.0014 0 255 255
-9.8428 -1.2153 -64.0014 80 80 80
-9.2428 -1.2153 -64.0014 80 80 80
-8.6428 -1.2153 -64.0014 80 80 80
-8.0428 -1.2153 -64.0014 80 80 80
-7.4428 -1.2153 -64.0014 80 80 80
-8.6915 -1.1983 -64.1925 0 255 255
-9.8915 -1.2483 -64.1925 80 80 80
-9.2915 -1.2483 -64.1925 80 80 80
-8.6915 -1.2483 -64.1925 80 80 80
-8.0915 -1.2483 -64.1925 80 80 80
-7.4915 -1.2483 -64.1925 80 80 80
-8.7366 -1.2326 -64.3843 0 255 255
-9.9366 -1.2826 -64.3843 80 80 80
-9.3366 -1.2826 -64.3843 80 80 80
-8.7366 -1.2826 -64.3843 80 80 80
-8.1366 -1.2826 -64.3843 80 80 80
-7.5366 -1.2826 -64.3843 80 80 80
-8.7697 -1.2704 -64.5779 0 255 255
-9.9697 -1.3204 -64.5779 80 80 80
-9.3697 -1.3204 -64.5779 80 80 80
-8.7697 -1.3204 -64.5779 80 80 80
-8.1697 -1.3204 -64.5779 80 80 80
-7.5697 -1.3204 -64.5779 80 80 80
-8.8041 -1.3027 -64.7723 0 255 255
-10.0041 -1.3527 -64.7723 80 80 80
-9.4041 -1.3527 -64.7723 80 80 80
-8.8041 -1.3527 -64.7723 80 80 80
-8.2041 -1.3527 -64.7723 80 80 80
-7.6041 -1.3527 -64.7723 80 80 80
-8.8536 -1.3366 -64.9630 0 255 255
-10.0536 -1.3866 -64.9630 80 80 80
-9.4536 -1.3866 -64.9630 80 80 80
-8.8536 -1.3866 -64.9630 80 80 80
-8.2536 -1.3866 -64.9630 80 80 80
-7.6536 -1.3866 -64.9630 80 80 80
-8.8977 -1.3714 -65.1550 0 255 255
-10.0977 -1.4214 -65.1550 80 80 80
-9.4977 -1.4214 -65.1550 80 80 80
-8.8977 -1.4214 -65.1550 80 80 80
-8.2977 -1.4214 -65.1550 80 80 80
-7.6977 -1.4214 -65.1550 80 80 80
-8.9267 -1.4033 -65.3503 0 255 255
-10.1267 -1.4533 -65.3503 80 80 80
-9.5267 -1.4533 -65.3503 80 80 80
-8.9267 -1.4533 -65.3503 80 80 80
-8.3267 -1.4533 -65.3503 80 80 80
-7.7267 -1.4533 -65.3503 80 80 80
-8.9566 -1.4353 -65.5454 0 255 255
-10.1566 -1.4853 -65.5454 80 80 80
-9.5566 -1.4853 -65.5454 80 80 80
-8.9566 -1.4853 -65.5454 80 80 80
-8.3566 -1.4853 -65.5454 80 80 80
-7.7566 -1.4853 -65.5454 80 80 80
-9.0069 -1.4655 -65.7367 0 255 255
-10.2069 -1.5155 -65.7367 80 80 80
-9.6069 -1.5155 -65.7367 80 80 80
-9.0069 -1.5155 -65.7367 80 80 80
-8.4069 -1.5155 -65.7367 80 80 80
-7.8069 -1.5155 -65.7367 80 80 80
-9.0272 -1.5056 -65.9315 0 255 255
-10.2272 -1.5556 -65.9315 80 80 80
-9.6272 -1.5556 -65.9315 80 80 80
-9.0272 -1.5556 -65.9315 80 80 80
-8.4272 -1.5556 -65.9315 80 80 80
-7.8272 -1.5556 -65.9315 80 80 80
-9.0577 -1.5396 -66.1262 0 255 255
-10.2577 -1.5896 -66.1262 80 80 80
-9.6577 -1.5896 -66.1262 80 80 80
-9.0577 -1.5896 -66.1262 80 80 80
-8.4577 -1.5896 -66.1262 80 80 80
-7.8577 -1.5896 -66.1262 80 80 80
-9.1029 -1.5765 -66.3176 0 255 255
-10.3029 -1.6265 -66.3176 80 80 80
-9.7029 -1.6265 -66.3176 80 80 80
-9.1029 -1.6265 -66.3176 80 80 80
-8.5029 -1.6265 -66.3176 80 80 80
-7.9029 -1.6265 -66.3176 80 80 80
-9.1447 -1.6032 -66.5113 0 255 255
-10.3447 -1.6532 -66.5113 80 80 80
-9.7447 -1.6532 -66.5113 80 80 80
-9.1447 -1.6532 -66.5113 80 80 80
-8.5447 -1.6532 -66.5113 80 80 80
-7.9447 -1.6532 -66.5113 80 80 80
-9.1911 -1.6393 -66.7025 0 255 255
-10.3911 -1.6893 -66.7025 80 80 80
-9.7911 -1.6893 -66.7025 80 80 80
-9.1911 -1.6893 -66.7025 80 80 80
-8.5911 -1.6893 -66.7025 80 80 80
-7.9911 -1.6893 -66.7025 80 80 80
-9.2253 -1.6755 -66.8962 0 255 255
-10.4253 -1.7255 -66.8962 80 80 80
-9.8253 -1.7255 -66.8962 80 80 80
-9.2253 -1.7255 -66.8962 80 80 80
-8.6253 -1.7255 -66.8962 80 80 80
-8.0253 -1.7255 -66.8962 80 80 80
-9.2667 -1.7158 -67.0877 0 255 255
-10.4667 -1.7658 -67.0877 80 80 80
-9.8667 -1.7658 -67.0877 80 80 80
-9.2667 -1.7658 -67.0877 80 80 80
-8.6667 -1.7658 -67.0877 80 80 80
-8.0667 -1.7658 -67.0877 80 80 80
-9.3045 -1.7488 -67.2813 0 255 255
-10.5045 -1.7988 -67.2813 80 80 80
-9.9045 -1.7988 -67.2813 80 80 80
-9.3045 -1.7988 -67.2813 80 80 80
-8.7045 -1.7988 -67.2813 80 80 80
-8.1045 -1.7988 -67.2813 80 80 80
-9.3426 -1.7826 -67.4747 0 255 255
-10.5426 -1.8326 -67.4747 80 80 80
-9.9426 -1.8326 -67.4747 80 80 80
-9.3426 -1.8326 -67.4747 80 80 80
-8.7426 -1.8326 -67.4747 80 80 80
-8.1426 -1.8326 -67.4747 80 80 80
-9.3758 -1.8254 -67.6672 0 255 255
-10.5758 -1.8754 -67.6672 80 80 80
-9.9758 -1.8754 -67.6672 80 80 80
-9.3758 -1.8754 -67.6672 80 80 80
-8.7758 -1.8754 -67.6672 80 80 80
-8.1758 -1.8754 -67.6672 80 80 80
-9.4244 -1.8590 -67.8583 0 255 255
-10.6244 -1.9090 -67.8583 80 80 80
-10.0244 -1.9090 -67.8583 80 80 80
-9.4244 -1.9090 -67.8583 80 80 80
-8.8244 -1.9090 -67.8583 80 80 80
-8.2244 -1.9090 -67.8583 80 80 80
-9.4456 -1.8982 -68.0532 0 255 255
-10.6456 -1.9482 -68.0532 80 80 80
-10.0456 -1.9482 -68.0532 80 80 80
-9.4456 -1.9482 -68.0532 80 80 80
-8.8456 -1.9482 -68.0532 80 80 80
-8.2456 -1.9482 -68.0532 80 80 80
-9.4800 -1.9396 -68.2459 0 255 255
-10.6800 -1.9896 -68.2459 80 80 80
-10.0800 -1.9896 -68.2459 80 80 80
-9.4800 -1.9896 -68.2459 80 80 80
-8.8800 -1.9896 -68.2459 80 80 80
-8.2800 -1.9896 -68.2459 80 80 80
-9.5229 -1.9815 -68.4367 0 255 255
-10.7229 -2.0315 -68.4367 80 80 80
-10.1229 -2.0315 -68.4367 80 80 80
-9.5229 -2.0315 -68.4367 80 80 80
-8.9229 -2.0315 -68.4367 80 80 80
-8.3229 -2.0315 -68.4367 80 80 80
-9.5575 -2.0119 -68.6313 0 255 255
-10.7575 -2.0619 -68.6313 80 80 80
-10.1575 -2.0619 -68.6313 80 80 80
-9.5575 -2.0619 -68.6313 80 80 80
-8.9575 -2.0619 -68.6313 80 80 80
-8.3575 -2.0619 -68.6313 80 80 80
-9.5856 -2.0521 -68.8252 0 255 255
-10.7856 -2.1021 -68.8252 80 80 80
-10.1856 -2.1021 -68.8252 80 80 80
-9.5856 -2.1021 -68.8252 80 80 80
-8.9856 -2.1021 -68.8252 80 80 80
-8.3856 -2.1021 -68.8252 80 80 80
-9.6475 -2.0891 -69.0117 0 255 255
-10.8475 -2.1391 -69.0117 80 80 80
-10.2475 -2.1391 -69.0117 80 80 80
-9.6475 -2.1391 -69.0117 80 80 80
-9.0475 -2.1391 -69.0117 80 80 80
-8.4475 -2.1391 -69.0117 80 80 80
0.4780 -1.2773 -15.8732 200 200 0
0.4780 -1.0482 -15.8732 200 200 0
0.4780 -0.8190 -15.8732 200 200 0
0.4780 -0.5898 -15.8732 200 200 0
0.4780 -0.3607 -15.8732 200 200 0
0.4780 -0.1315 -15.8732 200 200 0
0.4780 0.0977 -15.8732 200 200 0
0.4780 0.3268 -15.8732 200 200 0
0.4780 0.5560 -15.8732 200 200 0
0.4780 0.7852 -15.8732 200 200 0
0.4780 1.0143 -15.8732 200 200 0
0.4780 1.2435 -15.8732 200 200 0
0.4780 1.4727 -15.8732 200 200 0
0.4780 1.7018 -15.8732 200 200 0
0.4780 1.9310 -15.8732 200 200 0
0.4780 2.1602 -15.8732 200 200 0
0.4780 2.3893 -15.8732 200 200 0
0.4780 2.6185 -15.8732 200 200 0
0.4780 2.8477 -15.8732 200 200 0
0.4780 3.0768 -15.8732 200 200 0
0.4780 3.3060 -15.8732 200 200 0
0.4780 3.5352 -15.8732 200 200 0
0.4780 3.7643 -15.8732 200 200 0
0.4780 3.9935 -15.8732 200 200 0
0.4780 4.2227 -15.8732 200 200 0
-0.0220 4.2227 -15.8732 255 255 0
-0.0220 4.1227 -15.8732 255 255 0
0.1208 4.2227 -15.8732 255 255 0
0.1208 4.1227 -15.8732 255 255 0
0.2637 4.2227 -15.8732 255 255 0
0.2637 4.1227 -15.8732 255 255 0
0.4065 4.2227 -15.8732 255 255 0
0.4065 4.1227 -15.8732 255 255 0
0.5494 4.2227 -15.8732 255 255 0
0.5494 4.1227 -15.8732 255 255 0
0.6922 4.2227 -15.8732 255 255 0
0.6922 4.1227 -15.8732 255 255 0
0.8351 4.2227 -15.8732 255 255 0
0.8351 4.1227 -15.8732 255 255 0
0.9780 4.2227 -15.8732 255 255 0
0.9780 4.1227 -15.8732 255 255 0
1.8270 -0.9251 -18.8019 200 200 0
1.8270 -0.6960 -18.8019 200 200 0
1.8270 -0.4668 -18.8019 200 200 0
1.8270 -0.2376 -18.8019 200 200 0
1.8270 -0.0085 -18.8019 200 200 0
1.8270 0.2207 -18.8019 200 200 0
1.8270 0.4499 -18.8019 200 200 0
1.8270 0.6790 -18.8019 200 200 0
1.8270 0.9082 -18.8019 200 200 0
1.8270 1.1374 -18.8019 200 200 0
1.8270 1.3665 -18.8019 200 200 0
1.8270 1.5957 -18.8019 200 200 0
1.8270 1.8249 -18.8019 200 200 0
1.8270 2.0540 -18.8019 200 200 0
1.8270 2.2832 -18.8019 200 200 0
1.8270 2.5124 -18.8019 200 200 0
1.8270 2.7415 -18.8019 200 200 0
1.8270 2.9707 -18.8019 200 200 0
1.8270 3.1999 -18.8019 200 200 0
1.8270 3.4290 -18.8019 200 200 0
1.8270 3.6582 -18.8019 200 200 0
1.8270 3.8874 -18.8019 200 200 0
1.8270 4.1165 -18.8019 200 200 0
1.8270 4.3457 -18.8019 200 200 0
1.8270 4.5749 -18.8019 200 200 0
1.3270 4.5749 -18.8019 255 255 0
1.3270 4.4749 -18.8019 255 255 0
1.4699 4.5749 -18.8019 255 255 0
1.4699 4.4749 -18.8019 255 255 0
1.6127 4.5749 -18.8019 255 255 0
1.6127 4.4749 -18.8019 255 255 0
1.7556 4.5749 -18.8019 255 255 0
1.7556 4.4749 -18.8019 255 255 0
1.8985 4.5749 -18.8019 255 255 0
1.8985 4.4749 -18.8019 255 255 0
2.0413 4.5749 -18.8019 255 255 0
2.0413 4.4749 -18.8019 255 255 0
2.1842 4.5749 -18.8019 255 255 0
2.1842 4.4749 -18.8019 255 255 0
2.3270 4.5749 -18.8019 255 255 0
2.3270 4.4749 -18.8019 255 255 0
0.1090 -0.8695 -20.5428 200 200 0
0.1090 -0.6403 -20.5428 200 200 0
0.1090 -0.4112 -20.5428 200 200 0
0.1090 -0.1820 -20.5428 200 200 0
0.1090 0.0472 -20.5428 200 200 0
0.1090 0.2763 -20.5428 200 200 0
0.1090 0.5055 -20.5428 200 200 0
0.1090 0.7347 -20.5428 200 200 0
0.1090 0.9638 -20.5428 200 200 0
0.1090 1.1930 -20.5428 200 200 0
0.1090 1.4222 -20.5428 200 200 0
0.1090 1.6513 -20.5428 200 200 0
0.1090 1.8805 -20.5428 200 200 0
0.1090 2.1097 -20.5428 200 200 0
0.1090 2.3388 -20.5428 200 200 0
0.1090 2.5680 -20.5428 200 200 0
0.1090 2.7972 -20.5428 200 200 0
0.1090 3.0263 -20.5428 200 200 0
0.1090 3.2555 -20.5428 200 200 0
0.1090 3.4847 -20.5428 200 200 0
0.1090 3.7138 -20.5428 200 200 0
0.1090 3.9430 -20.5428 200 200 0
0.1090 4.1722 -20.5428 200 200 0
0.1090 4.4013 -20.5428 200 200 0
0.1090 4.6305 -20.5428 200 200 0
-0.3910 4.6305 -20.5428 255 255 0
-0.3910 4.5305 -20.5428 255 255 0
-0.2481 4.6305 -20.5428 255 255 0
-0.2481 4.5305 -20.5428 255 255 0
-0.1053 4.6305 -20.5428 255 255 0
-0.1053 4.5305 -20.5428 255 255 0
0.0376 4.6305 -20.5428 255 255 0
0.0376 4.5305 -20.5428 255 255 0
0.1805 4.6305 -20.5428 255 255 0
0.1805 4.5305 -20.5428 255 255 0
0.3233 4.6305 -20.5428 255 255 0
0.3233 4.5305 -20.5428 255 255 0
0.4662 4.6305 -20.5428 255 255 0
0.4662 4.5305 -20.5428 255 255 0
0.6090 4.6305 -20.5428 255 255 0
0.6090 4.5305 -20.5428 255 255 0
0.0113 -0.3852 -31.9541 200 200 0
0.0113 -0.1560 -31.9541 200 200 0
0.0113 0.0731 -31.9541 200 200 0
0.0113 0.3023 -31.9541 200 200 0
0.0113 0.5315 -31.9541 200 200 0
0.0113 0.7606 -31.9541 200 200 0
0.0113 0.9898 -31.9541 200 200 0
0.0113 1.2190 -31.9541 200 200 0
0.0113 1.4481 -31.9541 200 200 0
0.0113 1.6773 -31.9541 200 200 0
0.0113 1.9065 -31.9541 200 200 0
0.0113 2.1356 -31.9541 200 200 0
0.0113 2.3648 -31.9541 200 200 0
0.0113 2.5940 -31.9541 200 200 0
0.0113 2.8231 -31.9541 200 200 0
0.0113 3.0523 -31.9541 200 200 0
0.0113 3.2815 -31.9541 200 200 0
0.0113 3.5106 -31.9541 200 200 0
0.0113 3.7398 -31.9541 200 200 0
0.0113 3.9690 -31.9541 200 200 0
0.0113 4.1981 -31.9541 200 200 0
0.0113 4.4273 -31.9541 200 200 0
0.0113 4.6565 -31.9541 200 200 0
0.0113 4.8856 -31.9541 200 200 0
0.0113 5.1148 -31.9541 200 200 0
-0.4887 5.1148 -31.9541 255 255 0
-0.4887 5.0148 -31.9541 255 255 0
-0.3459 5.1148 -31.9541 255 255 0
-0.3459 5.0148 -31.9541 255 255 0
-0.2030 5.1148 -31.9541 255 255 0
-0.2030 5.0148 -31.9541 255 255 0
-0.0601 5.1148 -31.9541 255 255 0
-0.0601 5.0148 -31.9541 255 255 0
0.0827 5.1148 -31.9541 255 255 0
0.0827 5.0148 -31.9541 255 255 0
0.2256 5.1148 -31.9541 255 255 0
0.2256 5.0148 -31.9541 255 255 0
0.3684 5.1148 -31.9541 255 255 0
0.3684 5.0148 -31.9541 255 255 0
0.5113 5.1148 -31.9541 255 255 0
0.5113 5.0148 -31.9541 255 255 0
-0.0458 -0.3622 -32.7596 200 200 0
-0.0458 -0.1330 -32.7596 200 200 0
-0.0458 0.0961 -32.7596 200 200 0
-0.0458 0.3253 -32.7596 200 200 0
-0.0458 0.5545 -32.7596 200 200 0
-0.0458 0.7836 -32.7596 200 200 0
-0.0458 1.0128 -32.7596 200 200 0
-0.0458 1.2420 -32.7596 200 200 0
-0.0458 1.4711 -32.7596 200 200 0
-0.0458 1.7003 -32.7596 200 200 0
-0.0458 1.9295 -32.7596 200 200 0
-0.0458 2.1586 -32.7596 200 200 0
-0.0458 2.3878 -32.7596 200 200 0
-0.0458 2.6170 -32.7596 200 200 0
-0.0458 2.8461 -32.7596 200 200 0
-0.0458 3.0753 -32.7596 200 200 0
-0.0458 3.3045 -32.7596 200 200 0
-0.0458 3.5336 -32.7596 200 200 0
-0.0458 3.7628 -32.7596 200 200 0
-0.0458 3.9920 -32.7596 200 200 0
-0.0458 4.2211 -32.7596 200 200 0
-0.0458 4.4503 -32.7596 200 200 0
-0.0458 4.6795 -32.7596 200 200 0
-0.0458 4.9086 -32.7596 200 200 0
-0.0458 5.1378 -32.7596 200 200 0
-0.5458 5.1378 -32.7596 255 255 0
-0.5458 5.0378 -32.7596 255 255 0
-0.4029 5.1378 -32.7596 255 255 0
-0.4029 5.0378 -32.7596 255 255 0
-0.2601 5.1378 -32.7596 255 255 0
-0.2601 5.0378 -32.7596 255 255 0
-0.1172 5.1378 -32.7596 255 255 0
-0.1172 5.0378 -32.7596 255 255 0
0.0256 5.1378 -32.7596 255 255 0
0.0256 5.0378 -32.7596 255 255 0
0.1685 5.1378 -32.7596 255 255 0
0.1685 5.0378 -32.7596 255 255 0
0.3113 5.1378 -32.7596 255 255 0
0.3113 5.0378 -32.7596 255 255 0
0.4542 5.1378 -32.7596 255 255 0
0.4542 5.0378 -32.7596 255 255 0
-0.0576 -0.3489 -33.6032 200 200 0
-0.0576 -0.1197 -33.6032 200 200 0
-0.0576 0.1095 -33.6032 200 200 0
-0.0576 0.3386 -33.6032 200 200 0
-0.0576 0.5678 -33.6032 200 200 0
-0.0576 0.7970 -33.6032 200 200 0
-0.0576 1.0261 -33.6032 200 200 0
-0.0576 1.2553 -33.6032 200 200 0
-0.0576 1.4845 -33.6032 200 200 0
-0.0576 1.7136 -33.6032 200 200 0
-0.0576 1.9428 -33.6032 200 200 0
-0.0576 2.1720 -33.6032 200 200 0
-0.0576 2.4011 -33.6032 200 200 0
-0.0576 2.6303 -33.6032 200 200 0
-0.0576 2.8595 -33.6032 200 200 0
-0.0576 3.0886 -33.6032 200 200 0
-0.0576 3.3178 -33.6032 200 200 0
-0.0576 3.5470 -33.6032 200 200 0
-0.0576 3.7761 -33.6032 200 200 0
-0.0576 4.0053 -33.6032 200 200 0
-0.0576 4.2345 -33.6032 200 200 0
-0.0576 4.4636 -33.6032 200 200 0
-0.0576 4.6928 -33.6032 200 200 0
-0.0576 4.9220 -33.6032 200 200 0
-0.0576 5.1511 -33.6032 200 200 0
-0.5576 5.1511 -33.6032 255 255 0
-0.5576 5.0511 -33.6032 255 255 0
-0.4148 5.1511 -33.6032 255 255 0
-0.4148 5.0511 -33.6032 255 255 0
-0.2719 5.1511 -33.6032 255 255 0
-0.2719 5.0511 -33.6032 255 255 0
-0.1290 5.1511 -33.6032 255 255 0
-0.1290 5.0511 -33.6032 255 255 0
0.0138 5.1511 -33.6032 255 255 0
0.0138 5.0511 -33.6032 255 255 0
0.1567 5.1511 -33.6032 255 255 0
0.1567 5.0511 -33.6032 255 255 0
0.2995 5.1511 -33.6032 255 255 0
0.2995 5.0511 -33.6032 255 255 0
0.4424 5.1511 -33.6032 255 255 0
0.4424 5.0511 -33.6032 255 255 0
-0.0482 -0.3356 -33.4488 200 200 0
-0.0482 -0.1064 -33.4488 200 200 0
-0.0482 0.1228 -33.4488 200 200 0
-0.0482 0.3519 -33.4488 200 200 0
-0.0482 0.5811 -33.4488 200 200 0
-0.0482 0.8103 -33.4488 200 200 0
-0.0482 1.0394 -33.4488 200 200 0
-0.0482 1.2686 -33.4488 200 200 0
-0.0482 1.4978 -33.4488 200 200 0
-0.0482 1.7269 -33.4488 200 200 0
-0.0482 1.9561 -33.4488 200 200 0
-0.0482 2.1853 -33.4488 200 200 0
-0.0482 2.4144 -33.4488 200 200 0
-0.0482 2.6436 -33.4488 200 200 0
-0.0482 2.8728 -33.4488 200 200 0
-0.0482 3.1019 -33.4488 200 200 0
-0.0482 3.3311 -33.4488 200 200 0
-0.0482 3.5603 -33.4488 200 200 0
-0.0482 3.7894 -33.4488 200 200 0
-0.0482 4.0186 -33.4488 200 200 0
-0.0482 4.2478 -33.4488 200 200 0
-0.0482 4.4769 -33.4488 200 200 0
-0.0482 4.7061 -33.4488 200 200 0
-0.0482 4.9353 -33.4488 200 200 0
-0.0482 5.1644 -33.4488 200 200 0
-0.5482 5.1644 -33.4488 255 255 0
-0.5482 5.0644 -33.4488 255 255 0
-0.4053 5.1644 -33.4488 255 255 0
-0.4053 5.0644 -33.4488 255 255 0
-0.2625 5.1644 -33.4488 255 255 0
-0.2625 5.0644 -33.4488 255 255 0
-0.1196 5.1644 -33.4488 255 255 0
-0.1196 5.0644 -33.4488 255 255 0
0.0232 5.1644 -33.4488 255 255 0
0.0232 5.0644 -33.4488 255 255 0
0.1661 5.1644 -33.4488 255 255 0
0.1661 5.0644 -33.4488 255 255 0
0.3089 5.1644 -33.4488 255 255 0
0.3089 5.0644 -33.4488 255 255 0
0.4518 5.1644 -33.4488 255 255 0
0.4518 5.0644 -33.4488 255 255 0
-1.0907 -0.9810 -44.6305 200 200 0
-1.0907 -0.7518 -44.6305 200 200 0
-1.0907 -0.5226 -44.6305 200 200 0
-1.0907 -0.2935 -44.6305 200 200 0
-1.0907 -0.0643 -44.6305 200 200 0
-1.0907 0.1649 -44.6305 200 200 0
-1.0907 0.3940 -44.6305 200 200 0
-1.0907 0.6232 -44.6305 200 200 0
-1.0907 0.8524 -44.6305 200 200 0
-1.0907 1.0815 -44.6305 200 200 0
-1.0907 1.3107 -44.6305 200 200 0
-1.0907 1.5399 -44.6305 200 200 0
-1.0907 1.7690 -44.6305 200 200 0
-1.0907 1.9982 -44.6305 200 200 0
-1.0907 2.2274 -44.6305 200 200 0
-1.0907 2.4565 -44.6305 200 200 0
-1.0907 2.6857 -44.6305 200 200 0
-1.0907 2.9149 -44.6305 200 200 0
-1.0907 3.1440 -44.6305 200 200 0
-1.0907 3.3732 -44.6305 200 200 0
-1.0907 3.6024 -44.6305 200 200 0
-1.0907 3.8315 -44.6305 200 200 0
-1.0907 4.0607 -44.6305 200 200 0
-1.0907 4.2899 -44.6305 200 200 0
-1.0907 4.5190 -44.6305 200 200 0
-1.5907 4.5190 -44.6305 255 255 0
-1.5907 4.4190 -44.6305 255 255 0
-1.4478 4.5190 -44.6305 255 255 0
-1.4478 4.4190 -44.6305 255 255 0
-1.3049 4.5190 -44.6305 255 255 0
-1.3049 4.4190 -44.6305 255 255 0
-1.1621 4.5190 -44.6305 255 255 0
-1.1621 4.4190 -44.6305 255 255 0
-1.0192 4.5190 -44.6305 255 255 0
-1.0192 4.4190 -44.6305 255 255 0
-0.8764 4.5190 -44.6305 255 255 0
-0.8764 4.4190 -44.6305 255 255 0
-0.7335 4.5190 -44.6305 255 255 0
-0.7335 4.4190 -44.6305 255 255 0
-0.5907 4.5190 -44.6305 255 255 0
-0.5907 4.4190 -44.6305 255 255 0
-2.2463 -1.4598 -51.1555 200 200 0
-2.2463 -1.2306 -51.1555 200 200 0
-2.2463 -1.0015 -51.1555 200 200 0
-2.2463 -0.7723 -51.1555 200 200 0
-2.2463 -0.5431 -51.1555 200 200 0
-2.2463 -0.3140 -51.1555 200 200 0
-2.2463 -0.0848 -51.1555 200 200 0
-2.2463 0.1444 -51.1555 200 200 0
-2.2463 0.3735 -51.1555 200 200 0
-2.2463 0.6027 -51.1555 200 200 0
-2.2463 0.8319 -51.1555 200 200 0
-2.2463 1.0610 -51.1555 200 200 0
-2.2463 1.2902 -51.1555 200 200 0
-2.2463 1.5194 -51.1555 200 200 0
-2.2463 1.7485 -51.1555 200 200 0
-2.2463 1.9777 -51.1555 200 200 0
-2.2463 2.2069 -51.1555 200 200 0
-2.2463 2.4360 -51.1555 200 200 0
-2.2463 2.6652 -51.1555 200 200 0
-2.2463 2.8944 -51.1555 200 200 0
-2.2463 3.1235 -51.1555 200 200 0
-2.2463 3.3527 -51.1555 200 200 0
-2.2463 3.5819 -51.1555 200 200 0
-2.2463 3.8110 -51.1555 200 200 0
-2.2463 4.0402 -51.1555 200 200 0
-2.7463 4.0402 -51.1555 255 255 0
-2.7463 3.9402 -51.1555 255 255 0
-2.6035 4.0402 -51.1555 255 255 0
-2.6035 3.9402 -51.1555 255 255 0
-2.4606 4.0402 -51.1555 255 255 0
-2.4606 3.9402 -51.1555 255 255 0
-2.3178 4.0402 -51.1555 255 255 0
-2.3178 3.9402 -51.1555 255 255 0
-2.1749 4.0402 -51.1555 255 255 0
-2.1749 3.9402 -51.1555 255 255 0
-2.0320 4.0402 -51.1555 255 255 0
-2.0320 3.9402 -51.1555 255 255 0
-1.8892 4.0402 -51.1555 255 255 0
-1.8892 3.9402 -51.1555 255 255 0
-1.7463 4.0402 -51.1555 255 255 0
-1.7463 3.9402 -51.1555 255 255 0
-2.1602 -1.5086 -52.1482 200 200 0
-2.1602 -1.2794 -52.1482 200 200 0
-2.1602 -1.0503 -52.1482 200 200 0
-2.1602 -0.8211 -52.1482 200 200 0
-2.1602 -0.5919 -52.1482 200 200 0
-2.1602 -0.3628 -52.1482 200 200 0
-2.1602 -0.1336 -52.1482 200 200 0
-2.1602 0.0956 -52.1482 200 200 0
-2.1602 0.3247 -52.1482 200 200 0
-2.1602 0.5539 -52.1482 200 200 0
-2.1602 0.7831 -52.1482 200 200 0
-2.1602 1.0122 -52.1482 200 200 0
-2.1602 1.2414 -52.1482 200 200 0
-2.1602 1.4706 -52.1482 200 200 0
-2.1602 1.6997 -52.1482 200 200 0
-2.1602 1.9289 -52.1482 200 200 0
-2.1602 2.1581 -52.1482 200 200 0
-2.1602 2.3872 -52.1482 200 200 0
-2.1602 2.6164 -52.1482 200 200 0
-2.1602 2.8456 -52.1482 200 200 0
-2.1602 3.0747 -52.1482 200 200 0
-2.1602 3.3039 -52.1482 200 200 0
-2.1602 3.5331 -52.1482 200 200 0
-2.1602 3.7622 -52.1482 200 200 0
-2.1602 3.9914 -52.1482 200 200 0
-2.6602 3.9914 -52.1482 255 255 0
-2.6602 3.8914 -52.1482 255 255 0
-2.5174 3.9914 -52.1482 255 255 0
-2.5174 3.8914 -52.1482 255 255 0
-2.3745 3.9914 -52.1482 255 255 0
-2.3745 3.8914 -52.1482 255 255 0
-2.2317 3.9914 -52.1482 255 255 0
-2.2317 3.8914 -52.1482 255 255 0
-2.0888 3.9914 -52.1482 255 255 0
-2.0888 3.8914 -52.1482 255 255 0
-1.9459 3.9914 -52.1482 255 255 0
-1.9459 3.8914 -52.1482 255 255 0
-1.8031 3.9914 -52.1482 255 255 0
-1.8031 3.8914 -52.1482 255 255 0
-1.6602 3.9914 -52.1482 255 255 0
-1.6602 3.8914 -52.1482 255 255 0
-2.0787 -1.5240 -53.1431 200 200 0
-2.0787 -1.2948 -53.1431 200 200 0
-2.0787 -1.0657 -53.1431 200 200 0
-2.0787 -0.8365 -53.1431 200 200 0
-2.0787 -0.6073 -53.1431 200 200 0
-2.0787 -0.3782 -53.1431 200 200 0
-2.0787 -0.1490 -53.1431 200 200 0
-2.0787 0.0802 -53.1431 200 200 0
-2.0787 0.3093 -53.1431 200 200 0
-2.0787 0.5385 -53.1431 200 200 0
-2.0787 0.7677 -53.1431 200 200 0
-2.0787 0.9968 -53.1431 200 200 0
-2.0787 1.2260 -53.1431 200 200 0
-2.0787 1.4552 -53.1431 200 200 0
-2.0787 1.6843 -53.1431 200 200 0
-2.0787 1.9135 -53.1431 200 200 0
-2.0787 2.1427 -53.1431 200 200 0
-2.0787 2.3718 -53.1431 200 200 0
-2.0787 2.6010 -53.1431 200 200 0
-2.0787 2.8302 -53.1431 200 200 0
-2.0787 3.0593 -53.1431 200 200 0
-2.0787 3.2885 -53.1431 200 200 0
-2.0787 3.5177 -53.1431 200 200 0
-2.0787 3.7468 -53.1431 200 200 0
-2.0787 3.9760 -53.1431 200 200 0
-2.5787 3.9760 -53.1431 255 255 0
-2.5787 3.8760 -53.1431 255 255 0
-2.4358 3.9760 -53.1431 255 255 0
-2.4358 3.8760 -53.1431 255 255 0
-2.2930 3.9760 -53.1431 255 255 0
-2.2930 3.8760 -53.1431 255 255 0
-2.1501 3.9760 -53.1431 255 255 0
-2.1501 3.8760 -53.1431 255 255 0
-2.0072 3.9760 -53.1431 255 255 0
-2.0072 3.8760 -53.1431 255 255 0
-1.8644 3.9760 -53.1431 255 255 0
-1.8644 3.8760 -53.1431 255 255 0
-1.7215 3.9760 -53.1431 255 255 0
-1.7215 3.8760 -53.1431 255 255 0
-1.5787 3.9760 -53.1431 255 255 0
-1.5787 3.8760 -53.1431 255 255 0
-1.9571 -1.5355 -53.8514 200 200 0
-1.9571 -1.3063 -53.8514 200 200 0
-1.9571 -1.0771 -53.8514 200 200 0
-1.9571 -0.8480 -53.8514 200 200 0
-1.9571 -0.6188 -53.8514 200 200 0
-1.9571 -0.3896 -53.8514 200 200 0
-1.9571 -0.1605 -53.8514 200 200 0
-1.9571 0.0687 -53.8514 200 200 0
-1.9571 0.2979 -53.8514 200 200 0
-1.9571 0.5270 -53.8514 200 200 0
-1.9571 0.7562 -53.8514 200 200 0
-1.9571 0.9854 -53.8514 200 200 0
-1.9571 1.2145 -53.8514 200 200 0
-1.9571 1.4437 -53.8514 200 200 0
-1.9571 1.6729 -53.8514 200 200 0
-1.9571 1.9020 -53.8514 200 200 0
-1.9571 2.1312 -53.8514 200 200 0
-1.9571 2.3604 -53.8514 200 200 0
-1.9571 2.5895 -53.8514 200 200 0
-1.9571 2.8187 -53.8514 200 200 0
-1.9571 3.0479 -53.8514 200 200 0
-1.9571 3.2770 -53.8514 200 200 0
-1.9571 3.5062 -53.8514 200 200 0
-1.9571 3.7354 -53.8514 200 200 0
-1.9571 3.9645 -53.8514 200 200 0
-2.4571 3.9645 -53.8514 255 255 0
-2.4571 3.8645 -53.8514 255 255 0
-2.3143 3.9645 -53.8514 255 255 0
-2.3143 3.8645 -53.8514 255 255 0
-2.1714 3.9645 -53.8514 255 255 0
-2.1714 3.8645 -53.8514 255 255 0
-2.0286 3.9645 -53.8514 255 255 0
-2.0286 3.8645 -53.8514 255 255 0
-1.8857 3.9645 -53.8514 255 255 0
-1.8857 3.8645 -53.8514 255 255 0
-1.7428 3.9645 -53.8514 255 255 0
-1.7428 3.8645 -53.8514 255 255 0
-1.6000 3.9645 -53.8514 255 255 0
-1.6000 3.8645 -53.8514 255 255 0
-1.4571 3.9645 -53.8514 255 255 0
-1.4571 3.8645 -53.8514 255 255 0
-1.7634 -1.5379 -54.7065 200 200 0
-1.7634 -1.3087 -54.7065 200 200 0
-1.7634 -1.0795 -54.7065 200 200 0
-1.7634 -0.8504 -54.7065 200 200 0
-1.7634 -0.6212 -54.7065 200 200 0
-1.7634 -0.3920 -54.7065 200 200 0
-1.7634 -0.1629 -54.7065 200 200 0
-1.7634 0.0663 -54.7065 200 200 0
-1.7634 0.2955 -54.7065 200 200 0
-1.7634 0.5246 -54.7065 200 200 0
-1.7634 0.7538 -54.7065 200 200 0
-1.7634 0.9830 -54.7065 200 200 0
-1.7634 1.2121 -54.7065 200 200 0
-1.7634 1.4413 -54.7065 200 200 0
-1.7634 1.6705 -54.7065 200 200 0
-1.7634 1.8996 -54.7065 200 200 0
-1.7634 2.1288 -54.7065 200 200 0
-1.7634 2.3580 -54.7065 200 200 0
-1.7634 2.5871 -54.7065 200 200 0
-1.7634 2.8163 -54.7065 200 200 0
-1.7634 3.0455 -54.7065 200 200 0
-1.7634 3.2746 -54.7065 200 200 0
-1.7634 3.5038 -54.7065 200 200 0
-1.7634 3.7330 -54.7065 200 200 0
-1.7634 3.9621 -54.7065 200 200 0
-2.2634 3.9621 -54.7065 255 255 0
-2.2634 3.8621 -54.7065 255 255 0
-2.1206 3.9621 -54.7065 255 255 0
-2.1206 3.8621 -54.7065 255 255 0
-1.9777 3.9621 -54.7065 255 255 0
-1.9777 3.8621 -54.7065 255 255 0
-1.8349 3.9621 -54.7065 255 255 0
-1.8349 3.8621 -54.7065 255 255 0
-1.6920 3.9621 -54.7065 255 255 0
-1.6920 3.8621 -54.7065 255 255 0
-1.5492 3.9621 -54.7065 255 255 0
-1.5492 3.8621 -54.7065 255 255 0
-1.4063 3.9621 -54.7065 255 255 0
-1.4063 3.8621 -54.7065 255 255 0
-1.2634 3.9621 -54.7065 255 255 0
-1.2634 3.8621 -54.7065 255 255 0
-4.3697 -2.0963 -66.9180 200 200 0
-4.3697 -1.8672 -66.9180 200 200 0
-4.3697 -1.6380 -66.9180 200 200 0
-4.3697 -1.4088 -66.9180 200 200 0
-4.3697 -1.1797 -66.9180 200 200 0
-4.3697 -0.9505 -66.9180 200 200 0
-4.3697 -0.7213 -66.9180 200 200 0
-4.3697 -0.4922 -66.9180 200 200 0
-4.3697 -0.2630 -66.9180 200 200 0
-4.3697 -0.0338 -66.9180 200 200 0
-4.3697 0.1953 -66.9180 200 200 0
-4.3697 0.4245 -66.9180 200 200 0
-4.3697 0.6537 -66.9180 200 200 0
-4.3697 0.8828 -66.9180 200 200 0
-4.3697 1.1120 -66.9180 200 200 0
-4.3697 1.3412 -66.9180 200 200 0
-4.3697 1.5703 -66.9180 200 200 0
-4.3697 1.7995 -66.9180 200 200 0
-4.3697 2.0287 -66.9180 200 200 0
-4.3697 2.2578 -66.9180 200 200 0
-4.3697 2.4870 -66.9180 200 200 0
-4.3697 2.7162 -66.9180 200 200 0
-4.3697 2.9453 -66.9180 200 200 0
-4.3697 3.1745 -66.9180 200 200 0
-4.3697 3.4037 -66.9180 200 200 0
-4.8697 3.4037 -66.9180 255 255 0
-4.8697 3.3037 -66.9180 255 255 0
-4.7269 3.4037 -66.9180 255 255 0
-4.7269 3.3037 -66.9180 255 255 0
-4.5840 3.4037 -66.9180 255 255 0
-4.5840 3.3037 -66.9180 255 255 0
-4.4412 3.4037 -66.9180 255 255 0
-4.4412 3.3037 -66.9180 255 255 0
-4.2983 3.4037 -66.9180 255 255 0
-4.2983 3.3037 -66.9180 255 255 0
-4.1555 3.4037 -66.9180 255 255 0
-4.1555 3.3037 -66.9180 255 255 0
-4.0126 3.4037 -66.9180 255 255 0
-4.0126 3.3037 -66.9180 255 255 0
-3.8697 3.4037 -66.9180 255 255 0
-3.8697 3.3037 -66.9180 255 255 0
-5.1432 -2.0963 -69.8180 200 200 0
-5.1432 -1.8672 -69.8180 200 200 0
-5.1432 -1.6380 -69.8180 200 200 0
-5.1432 -1.4088 -69.8180 200 200 0
-5.1432 -1.1797 -69.8180 200 200 0
-5.1432 -0.9505 -69.8180 200 200 0
-5.1432 -0.7213 -69.8180 200 200 0
-5.1432 -0.4922 -69.8180 200 200 0
-5.1432 -0.2630 -69.8180 200 200 0
-5.1432 -0.0338 -69.8180 200 200 0
-5.1432 0.1953 -69.8180 200 200 0
-5.1432 0.4245 -69.8180 200 200 0
-5.1432 0.6537 -69.8180 200 200 0
-5.1432 0.8828 -69.8180 200 200 0
-5.1432 1.1120 -69.8180 200 200 0
-5.1432 1.3412 -69.8180 200 200 0
-5.1432 1.5703 -69.8180 200 200 0
-5.1432 1.7995 -69.8180 200 200 0
-5.1432 2.0287 -69.8180 200 200 0
-5.1432 2.2578 -69.8180 200 200 0
-5.1432 2.4870 -69.8180 200 200 0
-5.1432 2.7162 -69.8180 200 200 0
-5.1432 2.9453 -69.8180 200 200 0
-5.1432 3.1745 -69.8180 200 200 0
-5.1432 3.4037 -69.8180 200 200 0
-5.6432 3.4037 -69.8180 255 255 0
-5.6432 3.3037 -69.8180 255 255 0
-5.5003 3.4037 -69.8180 255 255 0
-5.5003 3.3037 -69.8180 255 255 0
-5.3575 3.4037 -69.8180 255 255 0
-5.3575 3.3037 -69.8180 255 255 0
-5.2146 3.4037 -69.8180 255 255 0
-5.2146 3.3037 -69.8180 255 255 0
-5.0717 3.4037 -69.8180 255 255 0
-5.0717 3.3037 -69.8180 255 255 0
-4.9289 3.4037 -69.8180 255 255 0
-4.9289 3.3037 -69.8180 255 255 0
-4.7860 3.4037 -69.8180 255 255 0
-4.7860 3.3037 -69.8180 255 255 0
-4.6432 3.4037 -69.8180 255 255 0
-4.6432 3.3037 -69.8180 255 255 0
-5.3132 -2.1126 -70.8363 200 200 0
-5.3132 -1.8835 -70.8363 200 200 0
-5.3132 -1.6543 -70.8363 200 200 0
-5.3132 -1.4251 -70.8363 200 200 0
-5.3132 -1.1960 -70.8363 200 200 0
-5.3132 -0.9668 -70.8363 200 200 0
-5.3132 -0.7376 -70.8363 200 200 0
-5.3132 -0.5085 -70.8363 200 200 0
-5.3132 -0.2793 -70.8363 200 200 0
-5.3132 -0.0501 -70.8363 200 200 0
-5.3132 0.1790 -70.8363 200 200 0
-5.3132 0.4082 -70.8363 200 200 0
-5.3132 0.6374 -70.8363 200 200 0
-5.3132 0.8665 -70.8363 200 200 0
-5.3132 1.0957 -70.8363 200 200 0
-5.3132 1.3249 -70.8363 200 200 0
-5.3132 1.5540 -70.8363 200 200 0
-5.3132 1.7832 -70.8363 200 200 0
-5.3132 2.0124 -70.8363 200 200 0
-5.3132 2.2415 -70.8363 200 200 0
-5.3132 2.4707 -70.8363 200 200 0
-5.3132 2.6999 -70.8363 200 200 0
-5.3132 2.9290 -70.8363 200 200 0
-5.3132 3.1582 -70.8363 200 200 0
-5.3132 3.3874 -70.8363 200 200 0
-5.8132 3.3874 -70.8363 255 255 0
-5.8132 3.2874 -70.8363 255 255 0
-5.6704 3.3874 -70.8363 255 255 0
-5.6704 3.2874 -70.8363 255 255 0
-5.5275 3.3874 -70.8363 255 255 0
-5.5275 3.2874 -70.8363 255 255 0
-5.3847 3.3874 -70.8363 255 255 0
-5.3847 3.2874 -70.8363 255 255 0
-5.2418 3.3874 -70.8363 255 255 0
-5.2418 3.2874 -70.8363 255 255 0
-5.0989 3.3874 -70.8363 255 255 0
-5.0989 3.2874 -70.8363 255 255 0
-4.9561 3.3874 -70.8363 255 255 0
-4.9561 3.2874 -70.8363 255 255 0
-4.8132 3.3874 -70.8363 255 255 0
-4.8132 3.2874 -70.8363 255 255 0
-4.1378 -2.1351 -68.5557 200 200 0
-4.1378 -1.9060 -68.5557 200 200 0
-4.1378 -1.6768 -68.5557 200 200 0
-4.1378 -1.4476 -68.5557 200 200 0
-4.1378 -1.2185 -68.5557 200 200 0
-4.1378 -0.9893 -68.5557 200 200 0
-4.1378 -0.7601 -68.5557 200 200 0
-4.1378 -0.5310 -68.5557 200 200 0
-4.1378 -0.3018 -68.5557 200 200 0
-4.1378 -0.0726 -68.5557 200 200 0
-4.1378 0.1565 -68.5557 200 200 0
-4.1378 0.3857 -68.5557 200 200 0
-4.1378 0.6149 -68.5557 200 200 0
-4.1378 0.8440 -68.5557 200 200 0
-4.1378 1.0732 -68.5557 200 200 0
-4.1378 1.3024 -68.5557 200 200 0
-4.1378 1.5315 -68.5557 200 200 0
-4.1378 1.7607 -68.5557 200 200 0
-4.1378 1.9899 -68.5557 200 200 0
-4.1378 2.2190 -68.5557 200 200 0
-4.1378 2.4482 -68.5557 200 200 0
-4.1378 2.6774 -68.5557 200 200 0
